# .PCD v0.7 - Point Cloud Data file format
VERSION 0.7
FIELDS x y z
SIZE 4 4 4
TYPE F F F
COUNT 1 1 1
WIDTH 1523
HEIGHT 1
VIEWPOINT 0 0 0 1 0 0 0
POINTS 1523
DATA ascii
-36.952454 40.563702 -0.83759248
-37.095604 40.479343 1.8014398
-36.952293 40.563793 -0.66325462
-37.111515 40.469967 1.9605728
-36.971226 40.552639 -0.48740041
-37.13401 40.456711 2.1186316
-36.978664 40.548252 -0.31680179
-37.144608 40.450466 2.2805119
-39.669613 38.948463 -1.2882757
-36.985203 40.51899 -0.1448952
-39.491898 39.052437 -1.2836297
-36.992947 40.514458 0.021891356
-39.291622 39.169605 -1.2844489
-37.007549 40.505917 0.1881066
-39.07254 39.297779 -1.2855501
-37.016861 40.500469 0.35328627
-38.912022 39.391693 -1.2418356
-40.539181 38.439716 0.80063599
-38.637966 39.552032 -1.2500672
-40.520329 38.450745 0.86602604
-38.337605 39.72776 -1.2562659
-40.478611 38.475155 0.93217802
-38.065002 39.887249 -1.2326303
-40.467571 38.481609 1
-37.487911 40.224876 -1.324369
-40.469982 38.480202 1.0680541
-37.143551 40.42635 -1.2926779
-40.437557 38.499172 1.138446
-36.917606 40.558537 -1.1989114
-40.354919 38.54752 1.2142919
-36.934929 40.548401 -1.0149093
-40.208672 38.633083 1.301713
-36.956318 40.535889 -0.83303392
-37.100136 40.451748 1.7993492
-36.957924 40.53495 -0.65864348
-37.117737 40.441448 1.9577894
-36.975292 40.524788 -0.48365796
-37.140217 40.428299 2.1153893
-36.987904 40.51741 -0.31235814
-37.147366 40.424114 2.2775495
-39.645996 38.948944 -1.300518
-36.991852 40.491211 -0.1416527
-39.51899 39.022743 -1.2620766
-37.001385 40.485676 0.024953127
-39.280621 39.161255 -1.2872655
-37.01263 40.479137 0.19019729
-39.093555 39.269955 -1.2693915
-37.018555 40.475697 0.35458678
-38.865868 39.40226 -1.2632272
-40.540092 38.429401 0.80105454
-38.63673 39.535408 -1.2468133
-40.517761 38.442379 0.86611921
-38.331127 39.712986 -1.2554951
-40.484615 38.461639 0.93245661
-38.050014 39.876335 -1.2355402
-40.468376 38.471077 1
-37.488117 40.202843 -1.3202646
-40.477703 38.465656 1.0677291
-37.138325 40.406101 -1.2907569
-40.436577 38.489552 1.1382596
-36.925232 40.529922 -1.1923583
-40.352066 38.538662 1.2141523
-36.937725 40.522663 -1.010499
-40.224499 38.612785 1.2994837
-36.967598 40.505306 -0.82644939
-37.108814 40.423248 1.7967938
-36.964291 40.507229 -0.65403235
-37.121254 40.416019 1.9555626
-36.980083 40.498051 -0.47991562
-37.145428 40.401974 2.1124711
-36.994488 40.489681 -0.30865514
-37.145729 40.401798 2.2756982
-39.675316 38.917187 -1.2760336
-37.000824 40.459438 -0.13776183
-39.503239 39.016415 -1.2679546
-37.007015 40.455868 0.027736604
-39.284184 39.142735 -1.2806931
-37.014893 40.451324 0.1920557
-39.075214 39.263237 -1.2756755
-37.022587 40.446888 0.35625881
-38.865753 39.384022 -1.2589488
-40.545738 38.415257 0.80189162
-38.6236 39.523663 -1.2492537
-40.525108 38.427151 0.8667714
-38.336548 39.68919 -1.2485576
-40.491909 38.446297 0.93278152
-38.037273 39.861767 -1.236995
-40.473907 38.456676 1
-37.484039 40.18079 -1.3175285
-40.484982 38.450291 1.0674042
-37.12706 40.386642 -1.2907569
-40.448959 38.471066 1.1373279
-36.925137 40.503082 -1.1881881
-40.359074 38.522896 1.2131758
-36.952724 40.487175 -1.0016787
-40.224342 38.60059 1.2989262
-36.97612 40.473682 -0.82037139
-37.116421 40.39278 1.7942386
-36.976295 40.473583 -0.64757669
-37.133976 40.382656 1.9516658
-36.987156 40.467319 -0.47534144
-37.147854 40.374653 2.1098771
-36.998272 40.460911 -0.30532229
-37.151508 40.372547 2.2719951
-39.672295 38.905022 -1.2739933
-37.005402 40.431751 -0.13484371
-39.489353 39.009754 -1.2728531
-37.015095 40.426201 0.030798435
-39.282066 39.128418 -1.2778761
-37.02132 40.422638 0.19437873
-39.074326 39.247345 -1.2720847
-37.029072 40.418201 0.35811669
-38.855148 39.372818 -1.2606602
-40.548229 38.403572 0.8024497
-38.623619 39.505363 -1.2451866
-40.534508 38.41143 0.86751676
-38.336128 39.669945 -1.2447033
-40.478703 38.443378 0.93254942
-38.029926 39.845238 -1.2362676
-40.488438 38.437805 1
-37.482231 40.158779 -1.3141084
-40.499523 38.431458 1.0668936
-37.118095 40.367237 -1.2901168
-40.453018 38.45808 1.1368622
-36.934044 40.472599 -1.1810391
-40.362961 38.509636 1.2124782
-36.948475 40.46434 -0.99947345
-40.227966 38.586914 1.2979974
-36.978672 40.447052 -0.81631935
-37.119583 40.366383 1.7923801
-36.977234 40.447876 -0.64434886
-37.13541 40.357323 1.9497173
-36.994968 40.437721 -0.4707675
-37.15612 40.345467 2.1063104
-37.002781 40.43325 -0.30198967
-37.157997 40.344391 2.268292
-39.654362 38.90136 -1.2821546
-37.013523 40.402176 -0.13127697
-39.480026 39.000435 -1.2748125
-37.018135 40.399551 0.033025205
-39.270794 39.119347 -1.2806931
-37.029594 40.393044 0.19693398
-39.057961 39.240299 -1.2774711
-37.037407 40.388603 0.36016029
-38.83514 39.366932 -1.2675054
-40.542099 38.396851 0.80231017
-38.612595 39.493408 -1.2468133
-40.528347 38.404663 0.86742353
-38.327763 39.655277 -1.2447033
-40.489822 38.426559 0.93296719
-38.032349 39.823166 -1.2311752
-40.482193 38.430897 1
-37.480503 40.136784 -1.310688
-40.501991 38.419643 1.0667078
-37.11084 40.346867 -1.2888365
-40.45887 38.444149 1.1363031
-36.946404 40.440319 -1.1726985
-40.377312 38.490501 1.2109436
-36.956005 40.434864 -0.99340951
-40.233383 38.572296 1.2968826
-36.984692 40.41856 -0.81125438
-37.1194 40.342003 1.7909863
-36.985043 40.418358 -0.6392765
-37.138668 40.331055 1.9474905
-37.00631 40.406273 -0.46536171
-37.152504 40.323189 2.1050134
-37.014236 40.401768 -0.29717565
-37.162899 40.317284 2.2649593
-39.6544 38.887459 -1.278074
-37.016613 40.375591 -0.12868309
-39.476795 38.987656 -1.2728531
-37.021286 40.372959 0.035252035
-39.279533 39.098942 -1.2713037
-37.034534 40.365482 0.19902474
-39.060284 39.222637 -1.2720847
-37.037197 40.363983 0.36127502
-38.840321 39.346729 -1.2606602
-40.551624 38.381279 0.80342627
-38.592052 39.486794 -1.2533212
-40.530907 38.392967 0.86779624
-38.316231 39.642399 -1.2462449
-40.497543 38.411789 0.93329215
-38.015392 39.812122 -1.2348125
-40.477711 38.422977 1
-37.472313 40.118507 -1.310004
-40.497543 38.411789 1.0667078
-37.100353 40.32835 -1.2888365
-40.457829 38.434196 1.1361167
-36.950592 40.412842 -1.1673367
-40.374382 38.481274 1.2108041
-36.965336 40.404522 -0.98679411
-40.242332 38.555767 1.2953963
-36.989147 40.391087 -0.80669582
-37.13142 40.310825 1.7879664
-36.992981 40.388927 -0.63420415
-37.147205 40.301918 1.9444287
-37.007565 40.380699 -0.46245098
-37.159283 40.295105 2.1017711
-37.018986 40.374256 -0.29384291
-37.171337 40.288303 2.2608857
-39.660496 38.870213 -1.2699125
-37.016373 40.350994 -0.12673771
-39.478176 38.972317 -1.2679546
-37.028 40.344482 0.038035452
-39.285286 39.080341 -1.263792
-37.032658 40.341873 0.20018625
-39.054878 39.209373 -1.2711871
-37.042294 40.336475 0.36294705
-38.845585 39.326584 -1.2538149
-40.547295 38.373581 0.80342627
-38.600201 39.464005 -1.2451866
-40.531773 38.382275 0.86807573
-38.2999 39.632183 -1.2500992
-40.489632 38.405872 0.93319935
-38.004955 39.797359 -1.2355402
-40.488956 38.40625 1
-37.460903 40.102043 -1.310688
-40.496613 38.401966 1.066615
-37.099846 40.304245 -1.2849951
-40.462051 38.421322 1.135651
-36.956558 40.384491 -1.1613793
-40.371479 38.472042 1.2106645
-36.969769 40.37709 -0.98183274
-40.247883 38.54126 1.2942817
-36.990341 40.36557 -0.8031503
-37.134914 40.284607 1.786108
-36.997646 40.361481 -0.63005412
-37.14896 40.276741 1.9424803
-37.008923 40.355164 -0.45954025
-37.166176 40.267097 2.0985289
-37.02042 40.348724 -0.29125082
-37.176468 40.261333 2.2575531
-39.651302 38.860802 -1.2719529
-37.024269 40.320587 -0.12317109
-39.473179 38.959782 -1.2669752
-37.030788 40.316963 0.040262222
-39.276863 39.068867 -1.2647309
-37.044182 40.309521 0.20320618
-39.052261 39.193676 -1.2684939
-37.048668 40.30703 0.36480486
-38.80471 39.331234 -1.2717838
-40.561935 38.354778 0.80496091
-38.566502 39.4636 -1.2582018
-40.530697 38.372139 0.86826205
-38.286358 39.61927 -1.2524118
-40.486732 38.396568 0.93324578
-37.995708 39.780781 -1.2355402
-40.487804 38.395973 1
-37.453934 40.081833 -1.30932
-40.500713 38.388802 1.0663829
-37.085609 40.286503 -1.2862754
-40.467827 38.407074 1.1350919
-36.95705 40.357941 -1.1572092
-40.380566 38.455563 1.2095485
-36.972046 40.349606 -0.97742248
-40.253231 38.526321 1.293167
-36.992744 40.338104 -0.79909837
-37.14489 40.253559 1.7833204
-37.000137 40.333996 -0.62636518
-37.153706 40.248661 1.9399753
-37.020058 40.322926 -0.45413446
-37.174351 40.23719 2.0949621
-37.024811 40.320286 -0.28791809
-37.186302 40.230549 2.2531095
-39.65451 38.845287 -1.2658319
-37.027691 40.294174 -0.1205771
-39.474674 38.944481 -1.2620766
-37.034271 40.290543 0.042488992
-39.268833 39.058014 -1.2656698
-37.04599 40.284081 0.20483232
-39.032871 39.188168 -1.2756755
-37.057491 40.277737 0.36684853
-38.81007 39.311058 -1.2649384
-40.561188 38.345188 0.80523992
-38.587582 39.433777 -1.2435594
-40.5229 38.366306 0.86807573
-38.283001 39.601776 -1.2500992
-40.503368 38.377079 0.93380278
-37.985363 39.765945 -1.2362676
-40.479927 38.390007 1
-37.452507 40.059856 -1.3058996
-40.489361 38.384804 1.0665686
-37.080292 40.26516 -1.2843547
-40.473915 38.393322 1.1345329
-36.969936 40.326031 -1.1488686
-40.370766 38.450218 1.209967
-36.981754 40.319511 -0.97080731
-40.264145 38.509029 1.291495
-37.002617 40.308002 -0.79302025
-37.145134 40.229393 1.7819266
-37.005032 40.306671 -0.62221515
-37.155666 40.223583 1.9380268
-37.023354 40.296566 -0.45080793
-37.17458 40.213154 2.0930166
-37.031616 40.292007 -0.28421497
-37.189949 40.204674 2.2501469
-39.630947 38.845268 -1.278074
-37.040443 40.264114 -0.11636198
-39.464333 38.936523 -1.2650156
-37.041904 40.263313 0.04527247
-39.255001 39.051178 -1.2703648
-37.051952 40.257812 0.20692295
-39.034233 39.172092 -1.2711871
-37.060017 40.253395 0.36814898
-38.814331 39.292538 -1.2589488
-40.557205 38.337944 0.80523992
-38.567562 39.427696 -1.2500672
-40.534626 38.350311 0.86891425
-38.285015 39.582447 -1.2454741
-40.501045 38.368706 0.93384922
-37.952671 39.764477 -1.2471797
-40.496864 38.370995 1
-37.445103 40.04248 -1.3052158
-40.495785 38.371586 1.06629
-37.068966 40.248489 -1.2849951
-40.461033 38.390621 1.1349988
-36.976837 40.29895 -1.142911
-40.38747 38.430912 1.2082928
-36.990479 40.291481 -0.96474314
-40.263172 38.498989 1.2911234
-37.008102 40.28183 -0.78846169
-37.149517 40.204372 1.7800682
-37.015728 40.277649 -0.61668181
-37.166973 40.194813 1.9346867
-37.029041 40.270359 -0.44706559
-37.180649 40.187321 2.0900984
-37.042561 40.262955 -0.27977133
-37.187359 40.183647 2.2486658
-39.628189 38.833031 -1.2760336
-37.04409 40.237835 -0.11376798
-39.459797 38.924576 -1.2640359
-37.052563 40.233227 0.048612595
-39.25478 39.036026 -1.2666087
-37.057453 40.230568 0.2090137
-39.025856 39.16048 -1.2720847
-37.065571 40.226158 0.36982107
-38.829384 39.267288 -1.2469697
-40.56879 38.321686 0.80649555
-38.563168 39.412014 -1.2484403
-40.53215 38.341606 0.86900741
-38.296383 39.557045 -1.2362239
-40.503784 38.357029 0.93403494
-40.489056 38.365036 1
-37.43557 40.025013 -1.3052158
-40.505543 38.356071 1.0659187
-37.063786 40.227127 -1.2830744
-40.470718 38.375004 1.1342535
-36.979923 40.27272 -1.138145
-40.389999 38.418884 1.2077348
-36.993683 40.26524 -0.96033299
-40.267223 38.48563 1.2901944
-37.011417 40.255596 -0.78440976
-37.153442 40.178387 1.7782097
-37.019138 40.2514 -0.61299276
-37.167404 40.170795 1.9330165
-37.032547 40.24411 -0.44373894
-37.186268 40.160542 2.0871801
-37.049606 40.234837 -0.27606833
-37.196381 40.155045 2.2445924
-39.617905 38.824879 -1.2790942
-37.04958 40.210674 -0.11084986
-39.449165 38.915928 -1.2669752
-37.056381 40.207005 0.050839424
-39.249958 39.023415 -1.2656698
-37.057823 40.206226 0.2104075
-39.012798 39.151379 -1.2756755
-37.064228 40.20277 0.37075001
-38.807964 39.261902 -1.2546706
-40.564651 38.314041 0.80649555
-38.545963 39.403267 -1.2533212
-40.526192 38.334797 0.86891425
-38.285122 39.54401 -1.2377658
-40.511852 38.342533 0.93435985
-40.500622 38.348591 1
-37.427746 40.006622 -1.3045318
-40.51009 38.343483 1.0656866
-37.048672 40.211163 -1.2849951
-40.469929 38.365154 1.1340671
-36.986473 40.244724 -1.1321876
-40.385555 38.410679 1.2077348
-37.002064 40.236309 -0.95426893
-40.276588 38.469471 1.2887082
-37.016544 40.228497 -0.7798512
-37.160965 40.15057 1.7758868
-37.022655 40.225201 -0.60930383
-37.173161 40.143993 1.9305115
-37.030991 40.220703 -0.44165981
-37.192001 40.133827 2.0842621
-37.048122 40.21146 -0.27421677
-37.205524 40.12653 2.240519
-39.634621 38.801476 -1.2637913
-37.051144 40.184402 -0.10858011
-39.448978 38.900848 -1.2630565
-37.056255 40.181667 0.052509487
-39.238598 39.013466 -1.2684867
-37.066486 40.176189 0.21296281
-39.016716 39.13224 -1.2693915
-37.071198 40.173668 0.37260783
-38.813236 39.241161 -1.2478251
-40.574379 38.298428 0.80761164
-38.557346 39.378139 -1.2435594
-40.525299 38.324699 0.86910057
-38.27346 39.530102 -1.2393074
-40.507412 38.334274 0.93435985
-37.87709 39.742275 -1.2690041
-40.515556 38.329914 1
-37.421124 39.986355 -1.3031635
-40.521515 38.326725 1.0652688
-37.04641 40.186939 -1.2817938
-40.47422 38.352043 1.1336013
-36.992577 40.215755 -1.12623
-40.387928 38.398235 1.2071767
-37.004925 40.209145 -0.94985878
-40.289288 38.451035 1.2868503
-37.021225 40.20042 -0.77529263
-37.169815 40.12088 1.7733314
-37.029152 40.196175 -0.6046927
-37.174988 40.118111 1.928563
-37.034142 40.193504 -0.43833315
-37.204258 40.10244 2.0800469
-37.054832 40.182426 -0.27051377
-37.212517 40.098022 2.2368159
-39.616825 38.797352 -1.2719529
-37.058598 40.156441 -0.10533774
-39.435326 38.893776 -1.2679546
-37.063778 40.153687 0.055292964
-39.230732 39.002468 -1.2694256
-37.072327 40.149147 0.21505356
-39.013195 39.118038 -1.267596
-37.077084 40.146622 0.37427986
-40.572075 38.289864 0.80775118
-38.553127 39.362453 -1.2419324
-40.524677 38.315044 0.86928689
-38.249237 39.523899 -1.247016
-40.510296 38.322685 0.93454558
-37.852051 39.734909 -1.276279
-40.513157 38.321163 1
-37.410107 39.969696 -1.3038478
-40.50853 38.323624 1.0655009
-37.036427 40.168217 -1.2817938
-40.477043 38.340351 1.1332287
-36.999367 40.187908 -1.1202726
-40.390594 38.386276 1.2066187
-37.01355 40.180374 -0.94379485
-40.286503 38.441578 1.2866645
-37.029995 40.171635 -0.76972115
-37.172321 40.096024 1.7717054
-37.03289 40.170097 -0.60100365
-37.179214 40.092361 1.9263363
-37.044872 40.163731 -0.43334341
-37.201511 40.080513 2.0787501
-37.057014 40.15728 -0.26792169
-37.206284 40.07798 2.2360754
-39.609985 38.788109 -1.2729731
-37.068462 40.12867 -0.10177112
-39.429722 38.88319 -1.2679546
-37.068462 40.12867 0.057519674
-39.218559 38.994572 -1.2731814
-37.084095 40.120422 0.21784115
-39.024315 39.097027 -1.2577214
-37.085384 40.119743 0.37613767
-38.777237 39.227352 -1.2598045
-40.568256 38.282654 0.80775118
-38.538055 39.353512 -1.2459998
-40.527859 38.303967 0.86965954
-38.262989 39.4986 -1.236995
-37.834072 39.724838 -1.2806437
-40.526939 38.304447 1
-37.404648 39.951344 -1.3024795
-40.516994 38.309696 1.0651759
-37.033756 40.146973 -1.279233
-40.474846 38.331928 1.1331354
-37.003441 40.162964 -1.1155066
-40.379436 38.382252 1.2071767
-37.021145 40.153625 -0.93828201
-40.29985 38.424229 1.2848067
-37.037724 40.144882 -0.76465607
-37.173702 40.073158 1.7703115
-37.042446 40.142391 -0.59593141
-37.189335 40.064911 1.9232744
-37.049351 40.138748 -0.43001676
-37.208111 40.055008 2.0758319
-37.066795 40.129547 -0.2638483
-37.211086 40.05344 2.2331131
-39.611694 38.772869 -1.2678721
-37.073856 40.100746 -0.098852992
-39.406502 38.880234 -1.2787313
-37.073914 40.100719 0.060024798
-39.219788 38.977928 -1.2684867
-37.086098 40.094341 0.21946728
-37.090954 40.091805 0.37780976
-38.765072 39.215851 -1.2623715
-40.571087 38.270885 0.8083092
-38.538368 39.334469 -1.2419324
-40.534168 38.290203 0.87021858
-38.262905 39.4786 -1.2331407
-37.838268 39.700783 -1.2748239
-37.39489 39.932774 -1.3024795
-40.514435 38.300526 1.0651295
-37.028389 40.124538 -1.2773123
-40.47044 38.323547 1.1331354
-37.01667 40.130669 -1.1071661
-40.387241 38.367081 1.2062001
-37.024345 40.126652 -0.93387175
-40.31102 38.40696 1.2831347
-37.041042 40.117916 -0.76060402
-37.175865 40.047375 1.7686853
-37.04068 40.118107 -0.59362578
-37.193241 40.03828 1.9210477
-37.052845 40.111744 -0.42669022
-37.206753 40.031212 2.0742106
-37.072124 40.101654 -0.26051545
-37.21492 40.026939 2.2301507
-39.604614 38.763008 -1.2688925
-37.076405 40.075748 -0.096583247
-39.394424 38.872147 -1.28265
-37.078262 40.074783 0.062251568
-39.213593 38.966042 -1.2684867
-37.090511 40.068424 0.22132564
-39.012444 39.070488 -1.2568238
-37.095406 40.065884 0.37929606
-38.766151 39.198372 -1.2580934
-40.574192 38.259571 0.80886722
-38.531059 39.320438 -1.2419324
-40.53899 38.277847 0.87068439
-38.246952 39.467957 -1.236995
-37.801701 39.699146 -1.2871909
-37.389042 39.913418 -1.3011115
-37.020287 40.104889 -1.2766721
-40.478706 38.309147 1.1324832
-37.022114 40.103939 -1.1018043
-40.402435 38.348751 1.2046655
-37.031616 40.099007 -0.92835903
-40.31015 38.396671 1.282763
-37.04673 40.091156 -0.75604558
-37.175133 40.024487 1.7675239
-37.049911 40.089504 -0.58855343
-37.199543 40.01181 1.9185426
-37.062195 40.083126 -0.42211604
-37.221779 40.000263 2.0696712
-37.076363 40.075771 -0.2575531
-37.224628 39.998787 2.2260771
-39.596035 38.75391 -1.2709327
-37.080807 40.049892 -0.093989253
-39.397861 38.856018 -1.2767718
-37.087997 40.046188 0.065313339
-39.199585 38.958179 -1.2731814
-37.095028 40.042564 0.22318411
-38.999603 39.061222 -1.2604146
-37.101734 40.039108 0.38096809
-38.759266 39.185059 -1.2580934
-40.563152 38.2556 0.8083092
-38.525414 39.305553 -1.2411189
-40.540318 38.267365 0.87096387
-38.245785 39.449631 -1.2339115
-40.53653 38.269314 0.93565965
-37.756813 39.701576 -1.3031955
-40.5252 38.275154 1
-37.381584 39.894917 -1.3004274
-37.029087 40.076542 -1.2696292
-40.487038 38.294815 1.1318312
-37.024273 40.079021 -1.0976341
-40.40353 38.337841 1.204247
-37.03558 40.073196 -0.92394888
-40.305775 38.388214 1.282763
-37.050808 40.06535 -0.75199342
-37.181553 39.997982 1.7654331
-37.054073 40.063667 -0.58486462
-37.209476 39.983593 1.9154809
-37.069931 40.055496 -0.41795778
-37.224663 39.975769 2.0674014
-37.07896 40.050842 -0.25496101
-37.234455 39.970726 2.2220039
-39.593605 38.741642 -1.2688925
-37.08707 40.023197 -0.091071129
-39.384285 38.848663 -1.2816701
-37.090801 40.021286 0.067261815
-39.195026 38.945427 -1.2722425
-37.099648 40.016766 0.22504246
-39.001102 39.044579 -1.2559259
-37.106403 40.013309 0.3824544
-38.749203 39.17337 -1.2598045
-40.525467 38.265194 0.80565846
-38.495419 39.303127 -1.2525077
-40.539677 38.257927 0.93584538
-37.763283 39.67746 -1.2966483
-40.526546 38.264641 1
-37.390926 39.86784 -1.2929032
-40.509411 38.273403 1.0649438
-37.022827 40.056042 -1.2683489
-37.028229 40.05328 -1.0928681
-40.404671 38.326954 1.2038285
-37.043072 40.045689 -0.91843617
-40.324478 38.367958 1.2803478
-37.058434 40.037838 -0.74692845
-37.193386 39.968838 1.7626455
-37.058342 40.037884 -0.58117557
-37.205421 39.962685 1.9146457
-37.076035 40.028835 -0.41421545
-37.229401 39.950424 2.0648077
-37.083405 40.02507 -0.25199854
-37.233902 39.948124 2.2201524
-39.583549 38.733265 -1.2719529
-37.093441 39.996571 -0.088153005
-39.376942 38.838085 -1.28265
-37.091938 39.997334 0.068931878
-39.204681 38.925476 -1.2628531
-37.106144 39.990124 0.22713321
-38.994701 39.032005 -1.2559259
-37.118275 39.983971 0.38468373
-38.739174 39.16164 -1.2615159
-40.52684 38.254704 0.806077
-38.491463 39.287312 -1.2508807
-40.530621 38.252789 0.87087071
-38.223904 39.423054 -1.236995
-40.537518 38.249287 0.93589175
-37.80806 39.634022 -1.2733691
-40.526154 38.255054 1
-37.397026 39.842548 -1.2867467
-40.508987 38.263763 1.0648509
-37.025082 40.03125 -1.2638674
-37.032288 40.027596 -1.0881021
-40.407631 38.315182 1.2032703
-37.047249 40.020004 -0.9140259
-40.323746 38.357742 1.2799764
-37.062725 40.012154 -0.74287653
-37.198261 39.94339 1.7607871
-37.057503 40.014801 -0.57887006
-37.208508 39.93819 1.9126973
-37.078762 40.004017 -0.41130459
-37.236 39.924244 2.0618894
-37.093208 39.996685 -0.24792516
-37.24044 39.921989 2.2168198
-39.576584 38.723297 -1.2729731
-37.094631 39.972675 -0.086207509
-39.364952 38.829826 -1.2865686
-37.098469 39.970741 0.071437001
-39.197075 38.914337 -1.263792
-37.110973 39.964447 0.22899163
-38.988335 39.019413 -1.2559259
-37.114265 39.962791 0.38524109
-38.753395 39.13768 -1.2503922
-40.506874 38.255001 0.80482137
-38.482666 39.273956 -1.2516942
-40.532051 38.242329 0.87115026
-38.217964 39.407204 -1.2362239
-40.522892 38.246941 0.93561327
-37.774853 39.63026 -1.284281
-40.527584 38.244579 1
-37.384769 39.826626 -1.2881148
-40.510387 38.253235 1.0647117
-37.027435 40.0065 -1.2593858
-40.491009 38.262989 1.1309927
-37.043266 39.998531 -1.0809531
-40.407078 38.305237 1.2029914
-37.048096 39.996101 -0.9107182
-40.310596 38.353806 1.2809052
-37.068844 39.985657 -0.73831797
-37.206787 39.916218 1.7584641
-37.072399 39.983868 -0.57241428
-37.218765 39.910187 1.9096354
-37.086826 39.976601 -0.40714645
-37.247993 39.895473 2.0579987
-37.094357 39.972813 -0.24570334
-37.240067 39.899464 2.2149682
-39.571186 38.712532 -1.2729731
-37.101212 39.946171 -0.083289385
-39.376381 38.80983 -1.2757924
-37.10334 39.945107 0.073663771
-39.198978 38.898434 -1.2590973
-37.115906 39.938831 0.23085004
-38.97242 39.011589 -1.2613122
-37.11924 39.937168 0.38672739
-38.732143 39.131596 -1.2580934
-40.474384 38.261429 0.80258918
-38.493526 39.250774 -1.2427461
-40.495987 38.250637 0.86947322
-38.21703 39.388874 -1.2331407
-40.490364 38.253445 0.93487048
-37.771614 39.611336 -1.2820985
-40.502213 38.247528 1
-37.377598 39.808128 -1.2874308
-40.506462 38.245407 1.0647117
-37.029888 39.981796 -1.254904
-40.488838 38.254208 1.1308994
-37.049248 39.972126 -1.0755913
-40.424408 38.286388 1.2013172
-37.057632 39.967937 -0.90465426
-40.329517 38.333782 1.2784901
-37.073341 39.960091 -0.73426592
-37.208317 39.892677 1.7570703
-37.063053 39.965229 -0.57241428
-37.225597 39.884045 1.9071302
-37.088005 39.952766 -0.40465152
-37.237164 39.878269 2.0583229
-37.104389 39.944584 -0.24163008
-37.253845 39.869938 2.2101541
-39.571987 38.698696 -1.2688925
-37.104366 39.92149 -0.08101964
-39.367588 38.799984 -1.2777514
-37.115414 39.916016 0.077003896
-39.170879 38.897461 -1.2722425
-37.1245 39.91151 0.23317307
-38.974125 38.994961 -1.2568238
-37.124313 39.911606 0.38821363
-38.767582 39.097309 -1.235846
-40.479374 38.249058 0.80328673
-38.468468 39.245529 -1.2516942
-40.49744 38.240105 0.86975271
-38.212856 39.372196 -1.2315991
-40.488232 38.244667 0.93491691
-37.656601 39.647839 -1.3286574
-40.485764 38.245892 1
-37.36375 39.792957 -1.2894828
-40.506145 38.23579 1.0646188
-37.032433 39.957134 -1.2504222
-40.492073 38.242764 1.1305268
-37.051918 39.947479 -1.0714211
-37.065563 39.94072 -0.89914155
-40.328911 38.323616 1.2781185
-37.077938 39.934586 -0.73021388
-37.208157 39.870056 1.7559087
-37.069462 39.938786 -0.56826437
-37.230762 39.858856 1.9049037
-37.087524 39.929836 -0.40257239
-37.240528 39.854019 2.0560532
-37.107494 39.919941 -0.23903787
-37.253662 39.847507 2.2083027
-39.563286 38.688839 -1.2709327
-37.108879 39.894962 -0.078425765
-39.360077 38.788696 -1.2787313
-37.119995 39.889496 0.079230726
-39.163025 38.885532 -1.2731814
-37.125576 39.886757 0.23456687
-38.961117 38.984753 -1.2604146
-37.12899 39.885078 0.38969994
-38.729824 39.098412 -1.2521036
-40.487778 38.234531 0.80426335
-38.480724 39.220821 -1.2419324
-40.52562 38.215939 0.87142974
-38.203358 39.357121 -1.2323699
-40.493092 38.231922 0.93514901
-37.634472 39.636677 -1.3344772
-40.52293 38.217258 1
-37.342712 39.780052 -1.294271
-40.467968 38.244267 1.0655009
-37.036263 39.930645 -1.2453005
-40.487965 38.23444 1.1305268
-37.057598 39.920162 -1.0660594
-40.423317 38.266209 1.2007592
-37.069649 39.914238 -0.8947314
-40.337044 38.308605 1.276818
-37.085606 39.906399 -0.7251488
-37.218285 39.841198 1.7533535
-37.085949 39.906231 -0.56134748
-37.230202 39.835342 1.9035118
-37.095398 39.901585 -0.39841413
-37.247036 39.827068 2.0531349
-37.111958 39.893448 -0.2360754
-37.263657 39.818901 2.2042294
-39.564182 38.675018 -1.2668519
-37.114006 39.869518 -0.075831771
-39.379551 38.76503 -1.2630565
-37.119846 39.866673 0.080622435
-39.146008 38.878883 -1.2797542
-37.129036 39.862194 0.236193
-38.951687 38.973618 -1.2622101
-37.134274 39.859638 0.39118618
-38.724876 39.084194 -1.2512479
-40.487499 38.224884 0.80454236
-38.458988 39.213818 -1.2492537
-38.194317 39.34285 -1.2331407
-40.519787 38.209145 0.93593818
-37.632915 39.616543 -1.3315673
-40.522713 38.207718 1
-37.335697 39.76144 -1.293587
-40.483841 38.226669 1.0649903
-37.04071 39.905251 -1.2401786
-40.471527 38.232674 1.131179
-37.065613 39.893112 -1.060102
-40.428318 38.253738 1.2000616
-37.067432 39.892223 -0.89252615
-40.331158 38.301105 1.2770038
-37.090416 39.88102 -0.72109687
-37.229027 39.813446 1.7507982
-37.082096 39.885078 -0.55996406
-37.232002 39.811993 1.9018419
-37.098621 39.877022 -0.3955034
-37.257694 39.799469 2.0495682
-37.117027 39.868046 -0.23311305
-37.26366 39.796558 2.2023778
-39.554291 38.666462 -1.2699125
-37.119232 39.844139 -0.073237896
-39.366177 38.757442 -1.2679546
-37.1287 39.839561 0.083405852
-39.143303 38.865231 -1.2778761
-37.130802 39.838547 0.2375868
-38.961597 38.95311 -1.253233
-37.143246 39.832527 0.39304405
-38.742764 39.058945 -1.2384131
-40.485458 38.216118 0.8046819
-38.455345 39.197948 -1.2476268
-38.190304 39.326134 -1.2315991
-40.512398 38.203091 0.93584538
-37.649879 39.587502 -1.3206549
-40.526134 38.196445 1
-37.325356 39.74445 -1.294271
-40.496201 38.210922 1.0645725
-37.052082 39.876617 -1.2324958
-40.446087 38.235161 1.1322969
-37.072021 39.866974 -1.0547402
-40.429783 38.243046 1.199643
-37.073952 39.866039 -0.88756478
-40.341423 38.285778 1.2755175
-37.097073 39.854858 -0.71653831
-37.236313 39.787518 1.7487074
-37.099339 39.85376 -0.55304742
-37.237461 39.786961 1.899615
-37.107224 39.849949 -0.39134514
-37.266697 39.772823 2.0463259
-37.118664 39.844414 -0.23089123
-37.270828 39.770824 2.1990452
-39.550915 38.655487 -1.2688925
-37.123272 39.820702 -0.07096827
-39.353119 38.750423 -1.2728531
-37.134586 39.815273 0.085632682
-39.144154 38.850723 -1.2741206
-37.138523 39.813381 0.23967749
-38.933262 38.951946 -1.265801
-37.147434 39.809105 0.39434451
-38.735043 39.047089 -1.2392685
-40.494453 38.20261 0.80565846
-38.437317 39.189991 -1.2533212
-38.181759 39.312653 -1.2323699
-40.494419 38.202625 0.93547398
-37.650623 39.567585 -1.3170176
-40.479321 38.209873 1
-37.322323 39.725163 -1.2922189
-40.523262 38.188782 1.0637833
-37.058949 39.851578 -1.2267337
-40.437031 38.230171 1.1325765
-37.077312 39.842762 -1.0499742
-40.435097 38.231098 1.1989455
-37.081074 39.840958 -0.88260329
-40.335827 38.278748 1.2757033
-37.099091 39.83231 -0.71349931
-37.235229 39.766964 1.7477782
-37.10318 39.830345 -0.54981947
-37.239933 39.764709 1.8979449
-37.109375 39.827374 -0.38885021
-37.262051 39.754089 2.0456774
-37.126198 39.819298 -0.22755849
-37.282124 39.744457 2.1949716
-39.546997 38.643303 -1.2678721
-37.12999 39.793564 -0.068050027
-39.347332 38.738323 -1.2728531
-37.134224 39.79155 0.087024391
-39.146011 38.834133 -1.2694256
-37.143574 39.787102 0.2415359
-38.938107 38.933075 -1.259517
-37.152538 39.782837 0.39583081
-38.705425 39.043808 -1.2512479
-40.492283 38.193436 0.80579799
-38.436676 39.171707 -1.2500672
-40.476257 38.201061 0.86965954
-38.172451 39.297455 -1.2331407
-40.477806 38.200325 0.93514901
-37.643818 39.54903 -1.3162901
-40.459068 38.20924 1
-37.315014 39.705513 -1.2915349
-40.506695 38.186577 1.0641083
-37.064922 39.824532 -1.2209716
-40.451004 38.213081 1.1316447
-37.078262 39.818184 -1.0463996
-40.429226 38.223442 1.199085
-37.085575 39.814705 -0.87819302
-40.360371 38.256214 1.2727307
-37.100216 39.807735 -0.71046019
-37.23864 39.741859 1.7461522
-37.095585 39.80994 -0.54935837
-37.250465 39.736229 1.8948832
-37.115929 39.800259 -0.38510776
-37.267208 39.728264 2.0430837
-37.134628 39.791359 -0.22385538
-37.280151 39.722103 2.1934905
-39.535629 38.635384 -1.2719529
-37.137306 39.767529 -0.065131903
-39.329277 38.732792 -1.2806904
-37.139812 39.766346 0.089251161
-39.129089 38.827293 -1.2759981
-37.14922 39.761906 0.24339432
-38.919125 38.926407 -1.2666986
-37.156429 39.758499 0.39713126
-38.708832 39.025677 -1.246114
-40.488544 38.185551 0.80579799
-38.434834 39.155022 -1.2476268
-40.4454 38.205917 0.86826205
-38.165257 39.282276 -1.2331407
-40.434269 38.21117 0.93412775
-37.634155 39.532986 -1.3170176
-37.17627 39.749134 1
-37.315041 39.683628 -1.2881148
-40.466816 38.195808 1.0650367
-37.068073 39.800209 -1.21649
-40.449013 38.204212 1.1315516
-37.0867 39.791416 -1.0404422
-40.41457 38.22047 1.1999221
-37.088932 39.790363 -0.8743341
-40.36544 38.243664 1.2718018
-37.103672 39.783405 -0.70691478
-37.246223 39.716114 1.7440615
-37.100864 39.784729 -0.54566944
-37.250854 39.713928 1.8934913
-37.121315 39.775078 -0.38178122
-37.269371 39.705185 2.0411382
-37.138329 39.767044 -0.22126329
-37.285847 39.697407 2.1905279
-39.535183 38.622303 -1.2688925
-37.137577 39.744911 -0.063510656
-39.341221 38.71312 -1.2699142
-37.150879 39.738682 0.092312992
-39.124969 38.814373 -1.2750592
-37.154964 39.736771 0.24525273
-38.914711 38.912819 -1.265801
-37.158611 39.735062 0.39824599
-38.695942 39.015251 -1.2495365
-40.472183 38.183578 0.80482137
-38.446289 39.132145 -1.2386785
-40.441624 38.197887 0.86826205
-38.163124 39.264729 -1.230828
-40.425045 38.20565 0.93398851
-37.621162 39.518486 -1.3192
-37.187584 39.721497 1
-37.304935 39.66655 -1.2887988
-40.454018 38.192081 1.0652688
-37.071316 39.775936 -1.2120082
-40.447052 38.195347 1.1314584
-37.088337 39.767967 -1.0368676
-40.407135 38.214035 1.200201
-37.094124 39.765259 -0.86992395
-40.375973 38.228626 1.2703155
-37.10722 39.759125 -0.70336926
-37.250313 39.692127 1.7424352
-37.116821 39.754631 -0.53921378
-37.267467 39.684093 1.8895946
-37.125027 39.75079 -0.37887049
-37.278774 39.678799 2.0378957
-37.140343 39.743614 -0.21904147
-37.28986 39.673611 2.1879358
-39.526981 38.612858 -1.2709327
-37.14151 39.720661 -0.061241031
-39.321625 38.708225 -1.2787313
-37.14949 39.716957 0.093426347
-39.130497 38.796986 -1.2684867
-37.157204 39.713375 0.24664652
-38.910343 38.899223 -1.2649031
-37.166302 39.709148 0.39991802
-38.702747 38.995628 -1.2426913
-40.463051 38.17815 0.80440283
-38.454525 39.110901 -1.2313573
-40.419754 38.198257 0.86733037
-38.157707 39.248745 -1.2300572
-40.399509 38.207661 0.93343145
-37.625103 39.496086 -1.3141077
-37.184505 39.700695 1
-37.303402 39.645481 -1.2860627
-40.452099 38.183235 1.0652224
-37.079807 39.749317 -1.205606
-40.408878 38.203308 1.1332287
-37.091789 39.743752 -1.0326974
-40.388859 38.212605 1.2013172
-37.101158 39.739403 -0.86496246
-40.364902 38.223732 1.2710587
-37.112621 39.734081 -0.69931722
-37.250893 39.669868 1.7412739
-37.122314 39.729576 -0.53552485
-37.271637 39.660233 1.8876461
-37.137707 39.722431 -0.37388062
-37.284706 39.654163 2.0353017
-37.146015 39.718571 -0.216079
-37.290405 39.651516 2.1860843
-39.528183 38.59906 -1.2668519
-37.150917 39.693989 -0.057998657
-39.325779 38.692284 -1.2728531
-37.157173 39.691109 0.09593147
-39.112041 38.79073 -1.2759981
-37.164948 39.687527 0.24873722
-38.893036 38.891598 -1.2711871
-37.172291 39.684143 0.40140432
-38.701427 38.979851 -1.2401242
-40.441238 38.17852 0.80300772
-38.421364 39.108841 -1.2443728
-40.403297 38.195999 0.86667824
-38.143963 39.23661 -1.2331407
-40.364853 38.213703 0.93264228
-37.620674 39.477627 -1.3126528
-37.190582 39.67572 1
-37.296829 39.626785 -1.2853785
-40.424786 38.1861 1.0658258
-37.086689 39.723572 -1.1998439
-40.414185 38.190983 1.1327628
-37.098808 39.717991 -1.0273356
-40.386875 38.20356 1.2011777
-37.110043 39.712814 -0.85944974
-40.366497 38.212948 1.2705014
-37.121635 39.707478 -0.69425225
-37.25877 39.644314 1.7391831
-37.126144 39.705399 -0.53229702
-37.274101 39.637253 1.8859761
-37.138065 39.699909 -0.3718015
-37.288944 39.630417 2.0330319
-37.151783 39.693588 -0.21311665
-37.291027 39.629456 2.184233
-39.51664 38.590397 -1.2709327
-37.15638 39.668018 -0.055404663
-39.329704 38.675747 -1.2669752
-37.162693 39.665138 0.098158181
-39.122189 38.770493 -1.2666087
-37.166908 39.663212 0.25013107
-38.890038 38.876484 -1.2693915
-37.176102 39.659016 0.40270478
-38.675152 38.974594 -1.2503922
-40.426456 38.175003 0.80217063
-38.416058 39.092888 -1.2435594
-40.393894 38.189869 0.86639869
-38.139931 39.21896 -1.2315991
-40.386307 38.193333 0.93329215
-37.62096 39.455906 -1.3090155
-37.21085 39.64315 1
-37.28986 39.607079 -1.2846944
-37.203316 39.646591 1.1479456
-37.09148 39.697651 -1.1947222
-40.379356 38.196507 1.1343466
-37.105457 39.691269 -1.0219738
-40.382896 38.194889 1.2011777
-37.106323 39.690872 -0.85779583
-40.355244 38.207516 1.2712445
-37.12677 39.681541 -0.69020009
-37.257263 39.62196 1.7382538
-37.131367 39.67944 -0.52860796
-37.272594 39.61496 1.8848627
-37.139824 39.675579 -0.36930656
-37.285641 39.609005 2.0320592
-37.155399 39.668468 -0.21052444
-37.303795 39.600716 2.1797891
-39.513226 38.578735 -1.2699125
-37.16061 39.643951 -0.053134918
-39.326046 38.66349 -1.2659955
-37.163372 39.6427 0.099549949
-39.119862 38.756844 -1.2647309
-37.16943 39.639957 0.25152487
-38.874393 38.867989 -1.2747779
-37.180477 39.634956 0.40400529
-38.664028 38.963234 -1.2529593
-37.183983 39.633369 0.55355859
-38.411171 39.077724 -1.2427461
-40.371971 38.189915 0.86546707
-38.131302 39.204441 -1.2323699
-40.360714 38.195011 0.93273509
-37.621758 39.435154 -1.305378
-37.191643 39.629898 1
-37.279984 39.589901 -1.2853785
-40.395321 38.179344 1.0663829
-37.093391 39.674385 -1.1908805
-40.384708 38.184147 1.1338807
-37.109207 39.667225 -1.0178037
-40.35553 38.197361 1.2029914
-37.118916 39.66283 -0.85118067
-40.353279 38.19838 1.2710587
-37.132473 39.656689 -0.68614817
-37.267151 39.595711 1.7359309
-37.131844 39.656975 -0.52630246
-37.277039 39.591236 1.8829143
-37.143921 39.651508 -0.36639583
-37.293652 39.583714 2.0291412
-37.16674 39.641174 -0.20645118
-37.304604 39.578754 2.1779377
-39.500713 38.571907 -1.2750134
-37.161793 39.62257 -0.051513791
-39.337029 38.645435 -1.2561986
-37.168201 39.61969 0.10149837
-39.109833 38.747494 -1.2675478
-37.176117 39.616135 0.25338328
-38.883541 38.849148 -1.2666986
-37.185398 39.611965 0.40530574
-38.664818 38.947399 -1.2495365
-37.210773 39.600567 0.55620933
-38.405025 39.064098 -1.2427461
-40.348404 38.191116 0.86444223
-38.124783 39.189987 -1.2323699
-40.353531 38.188816 0.93264228
-37.628151 39.413078 -1.2995582
-37.216705 39.597904 1
-37.279182 39.569836 -1.2826424
-37.223736 39.594746 1.1470172
-37.095852 39.652191 -1.1870391
-37.210228 39.600811 1.2959912
-37.11351 39.64426 -1.0136333
-40.31559 38.20586 1.2057816
-37.116302 39.643005 -0.84952676
-40.337017 38.196232 1.2723591
-37.135204 39.634514 -0.68310916
-37.268532 39.574623 1.7347693
-37.138187 39.633175 -0.52261353
-37.285633 39.56694 1.8804091
-37.150356 39.627708 -0.36306918
-37.305813 39.557873 2.0255744
-37.167892 39.619831 -0.20459962
-37.309528 39.556206 2.1753457
-39.505219 38.556709 -1.2688925
-37.169807 39.596989 -0.048595548
-39.335064 38.6325 -1.2542393
-37.170856 39.596519 0.10316849
-39.097912 38.73814 -1.2713037
-37.177002 39.593784 0.25454479
-38.879383 38.83548 -1.265801
-37.189957 39.588013 0.40660626
-38.666981 38.930092 -1.2452583
-38.40691 39.045937 -1.2386785
-40.341026 38.18441 0.86425591
-38.117928 39.17466 -1.2323699
-40.32972 38.189445 0.93213165
-37.620594 39.396191 -1.2995582
-37.2104 39.578907 1
-37.286587 39.544971 -1.2764859
-37.248486 39.561943 1.1461816
-37.101395 39.62746 -1.1819174
-37.244057 39.563915 1.2938483
-37.115696 39.621094 -1.0100589
-40.29541 38.204727 1.2070372
-37.122078 39.618248 -0.8451165
-40.327816 38.190292 1.2729166
-37.137562 39.611351 -0.68007004
-37.271358 39.551754 1.7333755
-37.144165 39.60841 -0.51892459
-37.286644 39.544945 1.8790174
-37.152851 39.604542 -0.36057425
-37.30682 39.535957 2.0239534
-37.174053 39.595097 -0.20163715
-37.314091 39.532719 2.1727533
-39.4972 38.547112 -1.2709327
-37.174316 39.573078 -0.046325922
-39.317196 38.626614 -1.2620766
-37.175411 39.572594 0.1051169
-39.090855 38.726585 -1.2722425
-37.190685 39.565845 0.25733238
-38.872002 38.823246 -1.2666986
-37.192783 39.564922 0.40772098
-38.660938 38.91647 -1.2452583
-37.209148 39.557693 0.55732542
-38.420559 39.022636 -1.2289169
-40.319042 38.18412 0.86332422
-38.106052 39.161549 -1.2346823
-40.311363 38.187511 0.93176025
-37.616505 39.377773 -1.2981031
-37.220619 39.552624 1
-37.330196 39.504227 -1.2559648
-37.271561 39.530125 1.1453924
-37.112236 39.600498 -1.1748748
-40.295284 38.194614 1.137887
-37.123207 39.59565 -1.0046973
-40.271564 38.20509 1.2085719
-37.133228 39.591225 -0.83905256
-37.145317 39.585884 -0.67551148
-37.276093 39.528126 1.7317494
-37.15202 39.582924 -0.51477444
-37.294983 39.519783 1.8765123
-37.159016 39.579834 -0.35724771
-37.31152 39.512478 2.0216837
-37.178516 39.571224 -0.19904506
-37.313354 39.511665 2.1712723
-39.493664 38.534798 -1.2699125
-37.180279 39.547413 -0.043731928
-39.321404 38.610199 -1.2561986
-37.181427 39.546913 0.10734361
-39.093239 38.710072 -1.2675478
-37.19313 39.54179 0.25872618
-38.861069 38.811695 -1.2693915
-37.197079 39.540058 0.40902144
-38.646324 38.905693 -1.2495365
-37.213493 39.532875 0.55830204
-38.417225 39.005974 -1.2272899
-40.296829 38.183235 0.86239254
-38.092152 39.14827 -1.2377658
-40.290955 38.185806 0.93134248
-37.606941 39.360653 -1.2988307
-40.277401 38.191738 1
-37.45277 39.428139 -1.2039778
-37.114059 39.576401 -1.1710334
-37.128624 39.570023 -0.9999311
-37.13171 39.568672 -0.83684754
-40.298294 38.182594 1.275146
-37.152725 39.559475 -0.67095304
-37.284119 39.501961 1.7296587
-37.145271 39.562737 -0.51431334
-37.292099 39.498466 1.8756772
-37.164829 39.554176 -0.35392106
-37.314064 39.488853 2.0197382
-37.171822 39.551117 -0.1986748
-37.321262 39.485703 2.1679394
-39.490437 38.52309 -1.2688925
-37.184978 39.523617 -0.041462302
-39.308365 38.602104 -1.261097
-37.184353 39.523888 0.10901374
-39.091125 38.696384 -1.2656698
-37.197929 39.517998 0.26035231
-38.876709 38.789436 -1.2577214
-37.20557 39.514683 0.41069353
-38.642017 38.891289 -1.2486808
-37.218376 39.509125 0.55927861
-38.402565 38.995205 -1.2313573
-40.287628 38.177124 0.86211306
-38.092197 39.129902 -1.2346823
-40.267067 38.186043 0.93083179
-37.60297 39.342216 -1.2973757
-37.48827 39.391994 -1.1868768
-40.303753 38.170124 1.0682397
-37.1199 39.551861 -1.1659114
-37.138092 39.543964 -0.99397361
-40.296783 38.173149 1.2060606
-37.139542 39.543335 -0.83188593
-40.239792 38.197884 1.2807195
-37.158913 39.534931 -0.66690099
-37.28722 39.479248 1.7282649
-37.153316 39.537357 -0.51016331
-37.293365 39.476582 1.8742855
-37.165806 39.531937 -0.35184193
-37.313515 39.467834 2.0184412
-37.176456 39.527317 -0.19608271
-37.322495 39.46394 2.1660881
-39.477768 38.515457 -1.2739933
-37.186142 39.501438 -0.039841056
-39.296944 38.593254 -1.2650156
-37.18919 39.500126 0.11096215
-39.115013 38.671532 -1.248769
-37.199169 39.495831 0.26151383
-38.856335 38.782829 -1.265801
-37.208672 39.491745 0.41180819
-38.631115 38.87973 -1.2512479
-37.225182 39.484642 0.56039464
-40.27293 38.173332 0.86155403
-38.055016 39.127602 -1.2485576
-40.292744 38.16481 0.93157458
-37.597347 39.324512 -1.2966483
-40.247921 38.184093 1
-37.498047 39.367241 -1.1800363
-40.274376 38.17271 1.0688896
-37.124092 39.528133 -1.1614299
-37.144161 39.519501 -0.98920774
-40.247295 38.184364 1.2095485
-37.142178 39.520355 -0.82857835
-40.247017 38.184483 1.2796048
-37.16164 39.511978 -0.66386199
-37.295879 39.454224 1.7261742
-37.159676 39.512825 -0.50647438
-37.301983 39.451595 1.8717804
-37.179443 39.504318 -0.34685206
-37.318481 39.444496 2.0161715
-37.192017 39.498909 -0.19126868
-37.331032 39.439098 2.1627553
-39.480938 38.501007 -1.2688925
-37.192833 39.476967 -0.037247181
-39.287148 38.583668 -1.2679546
-37.188652 39.478752 0.11207557
-39.091915 38.666939 -1.2590973
-37.207802 39.470581 0.26360452
-38.854042 38.768402 -1.2640054
-37.211864 39.468849 0.41292292
-38.630222 38.863869 -1.2486808
-37.230251 39.461006 0.56137133
-38.385078 38.96843 -1.2337978
-40.261906 38.167896 0.86118138
-37.990643 39.136673 -1.2747664
-40.246796 38.174339 0.93050689
-37.591785 39.306797 -1.2959208
-37.219841 39.465446 1
-37.506195 39.343307 -1.1738801
-40.281738 38.159435 1.0686111
-37.126637 39.505199 -1.1575885
-40.258232 38.169464 1.1390049
-37.145054 39.497345 -0.98622894
-40.225235 38.183537 1.2109436
-37.144897 39.497414 -0.82527065
-40.232319 38.180515 1.2807195
-37.164455 39.489071 -0.66082287
-37.297337 39.432392 1.7250127
-37.169708 39.486828 -0.50186324
-37.307064 39.428242 1.869832
-37.175205 39.484486 -0.34602046
-37.318092 39.423538 2.0148745
-37.19685 39.475254 -0.18867648
-37.33786 39.415108 2.1597929
-39.473068 38.491283 -1.2709327
-37.194172 39.454868 -0.035625935
-39.287006 38.569958 -1.2650156
-37.204605 39.450455 0.11569405
-39.076939 38.658779 -1.2647309
-37.20739 39.44928 0.26453376
-38.843567 38.757454 -1.2666986
-37.218807 39.44445 0.41440916
-38.632713 38.846611 -1.2444026
-37.233574 39.438206 0.56220835
-38.399113 38.945385 -1.2240362
-40.267452 38.155399 0.86164725
-37.983952 39.120926 -1.2747664
-40.237595 38.168022 0.93036759
-37.586281 39.28907 -1.2951934
-37.22686 39.441044 1
-37.505783 39.323109 -1.171144
-40.243122 38.165684 1.0694932
-37.131012 39.481571 -1.1531069
-40.226971 38.172516 1.1404024
-37.147789 39.47448 -0.98265433
-40.208668 38.180252 1.2119201
-37.151249 39.473015 -0.82086051
-40.221287 38.174919 1.2814626
-37.170921 39.464699 -0.65677094
-37.304359 39.408276 1.7231543
-37.163719 39.467743 -0.50140202
-37.31041 39.40572 1.8681619
-37.181843 39.460079 -0.34269381
-37.325047 39.399529 2.0122805
-37.196342 39.453949 -0.1871953
-37.339352 39.393478 2.1579413
-39.468403 38.480198 -1.2709327
-37.197407 39.432037 -0.033680558
-39.286919 38.556263 -1.2620766
-37.20607 39.42841 0.11708575
-39.063602 38.64986 -1.2694256
-37.218044 39.423389 0.26685673
-38.854549 38.73748 -1.2577214
-37.222176 39.421658 0.41552389
-38.6236 38.834278 -1.246114
-37.233303 39.416992 0.56276643
-38.391338 38.931625 -1.2248495
-40.256466 38.149895 0.86127454
-37.982422 39.103016 -1.2724538
-40.235783 38.158566 0.93041402
-37.5774 39.272774 -1.2959208
-40.199993 38.173565 1
-37.50198 39.304382 -1.1697757
-40.241318 38.156246 1.0694467
-37.138973 39.456532 -1.1473446
-40.203033 38.172291 1.1414273
-37.15237 39.450916 -0.97848415
-40.188412 38.178421 1.2131758
-37.157692 39.448685 -0.81645024
-40.193733 38.176189 1.2838778
-37.170345 39.443382 -0.65474498
-37.309647 39.384995 1.7215282
-37.170353 39.443378 -0.49771309
-37.322971 39.37941 1.8651
-37.184967 39.437252 -0.34019887
-37.3321 39.375584 2.0096865
-37.204975 39.428867 -0.18386257
-37.342735 39.371128 2.1557193
-39.459003 38.471077 -1.2739933
-37.204376 39.407738 -0.031086564
-39.277218 38.546597 -1.2650156
-37.211273 39.404877 0.11903417
-39.069855 38.632744 -1.2628531
-37.221466 39.400639 0.26825058
-38.850761 38.723763 -1.2568238
-37.221954 39.400436 0.41626704
-38.624535 38.817749 -1.2426913
-37.238636 39.393509 0.563743
-38.38023 38.919243 -1.2272899
-40.245487 38.144337 0.86090189
-37.989471 39.081577 -1.2662868
-40.215542 38.15678 0.92999625
-37.575447 39.253582 -1.2937384
-40.198166 38.163998 1
-37.498238 39.285656 -1.1684077
-37.277824 39.377228 1.1438606
-37.136536 39.435925 -1.1454239
-37.269581 39.38065 1.2893763
-37.158802 39.426674 -0.97371817
-40.169987 38.175705 1.2142919
-37.158905 39.426632 -0.81369388
-40.188213 38.168133 1.2840636
-37.17878 39.418373 -0.65018642
-37.311352 39.363297 1.7203667
-37.178883 39.418331 -0.49356306
-37.328327 39.356247 1.8631516
-37.195408 39.411465 -0.33604062
-37.342888 39.350197 2.0064442
-37.199188 39.409893 -0.1834923
-37.348019 39.348064 2.1531272
-39.459171 38.457977 -1.2709327
-37.205963 39.385765 -0.029465318
-39.2756 38.533566 -1.2630565
-37.214733 39.382153 0.12070429
-39.043518 38.629131 -1.2750592
-37.228645 39.376423 0.27010894
-38.842064 38.712082 -1.2586191
-37.227329 39.376965 0.41756749
-38.615501 38.80537 -1.2444026
-37.242214 39.370838 0.56458008
-38.377602 38.903328 -1.2256629
-40.221584 38.144047 0.85987705
-37.964188 39.073555 -1.2747664
-40.197128 38.154118 0.92962486
-37.566673 39.23724 -1.2944658
-40.168633 38.165848 1
-37.489346 39.269077 -1.1690917
-37.279629 39.355431 1.1436284
-37.151688 39.408112 -1.1371009
-37.287994 39.351986 1.288072
-37.1618 39.40395 -0.97014368
-40.144169 38.175922 1.215966
-37.165531 39.402412 -0.80928361
-40.153255 38.17218 1.2872219
-37.183735 39.394917 -0.6466409
-37.313141 39.341633 1.7192051
-37.180309 39.396328 -0.49125743
-37.328278 39.3354 1.8620383
-37.202332 39.38726 -0.33271408
-37.344658 39.328655 2.0048232
-37.211636 39.383427 -0.17941892
-37.351574 39.325806 2.1509056
-39.46257 38.4436 -1.2658319
-37.214943 39.360836 -0.026547194
-39.270802 38.521858 -1.2630565
-37.220116 39.358727 0.12265271
-39.041687 38.615356 -1.2731814
-37.234085 39.353027 0.27173507
-38.83836 38.698334 -1.2577214
-37.236485 39.352047 0.41923958
-38.603157 38.794319 -1.2478251
-37.247723 39.347462 0.56555665
-38.37672 38.886726 -1.2232225
-40.206905 38.139839 0.85931802
-37.933777 39.067486 -1.2855582
-40.180557 38.150593 0.92929989
-37.557945 39.220863 -1.2951934
-37.254047 39.344879 1
-37.483986 39.251045 -1.1684077
-37.288918 39.33065 1.1432106
-37.15292 39.38615 -1.1338999
-37.284332 39.33252 1.2878857
-37.168419 39.379826 -0.96537781
-40.14418 38.16544 1.215687
-37.168694 39.379711 -0.80597615
-40.164337 38.157211 1.2857356
-37.190571 39.370785 -0.64258897
-37.31501 39.320004 1.7180436
-37.185425 39.372887 -0.48802972
-37.33197 39.31308 1.8603681
-37.209351 39.363121 -0.32938755
-37.344677 39.307896 2.0035262
-37.216915 39.360031 -0.17682683
-37.355213 39.303593 2.1486835
-39.448486 38.436348 -1.2719529
-37.218533 39.338211 -0.024601698
-39.270885 38.508175 -1.2601173
-37.221912 39.336845 0.12404448
-39.038269 38.602253 -1.2722425
-37.234085 39.331921 0.27266431
-38.826416 38.687931 -1.2613122
-37.245739 39.327209 0.42091161
-38.609272 38.775753 -1.2418356
-37.247776 39.326385 0.56611472
-38.36404 38.874931 -1.2264767
-40.186668 38.137802 0.85847956
-37.923885 39.052944 -1.2870998
-40.145447 38.154472 0.92851073
-37.559631 39.20026 -1.2915559
-37.239292 39.329815 1
-37.48217 39.23159 -1.1663556
-37.303867 39.303699 1.1426536
-37.159508 39.362083 -1.1287777
-37.301109 39.304817 1.2866745
-37.176903 39.355049 -0.96001601
-40.114639 38.166931 1.2176402
-37.175507 39.355614 -0.80156589
-40.1441 38.155018 1.2874076
-37.193913 39.348171 -0.63954985
-37.318798 39.297661 1.7166498
-37.190628 39.349499 -0.48480189
-37.332077 39.29229 1.8592548
-37.209209 39.341984 -0.3277241
-37.346603 39.286415 2.001905
-37.220463 39.337433 -0.17460501
-37.355293 39.282902 2.1472025
-39.45013 38.422005 -1.2678721
-37.22913 39.311687 -0.021359324
-39.265907 38.4958 -1.2601173
-37.227066 39.312515 0.12599289
-39.028061 38.591076 -1.2750592
-37.23745 39.308357 0.27405804
-38.812546 38.677406 -1.265801
-37.249146 39.303673 0.42202634
-38.588306 38.767231 -1.2495365
-37.253056 39.302105 0.56709135
-38.357849 38.859547 -1.2264767
-40.164368 38.135895 0.85754788
-37.841724 39.066296 -1.321017
-40.128639 38.150208 0.92818582
-37.56274 39.178051 -1.2871909
-37.270584 39.295082 1
-37.473053 39.213978 -1.1670396
-37.290691 39.287029 1.1427928
-37.162258 39.338478 -1.1249366
-37.310188 39.279221 1.285836
-37.177986 39.332176 -0.95703709
-40.107082 38.158844 1.2179192
-37.183788 39.329853 -0.79660439
-40.12365 38.152206 1.2890797
-37.200527 39.323147 -0.63549781
-37.318584 39.275856 1.7157207
-37.190094 39.327328 -0.48295724
-37.335537 39.269066 1.8575847
-37.214188 39.317677 -0.32481337
-37.353706 39.261784 1.999311
-37.225513 39.313137 -0.17201281
-37.360527 39.259056 2.1446104
-39.453918 38.408291 -1.2627714
-37.233303 39.290184 -0.019413829
-39.256622 38.486645 -1.2630565
-37.233112 39.29026 0.12794131
-39.039768 38.572765 -1.2656698
-37.243549 39.286118 0.27568424
-38.812572 38.662994 -1.2631078
